ply
format ascii 1.0
element vertex 61
property float x
property float y
property float z
property uchar red
property uchar green
property uchar blue
end_header
-0.125000 0.217983 1.010275 0 0 255
0.125000 0.217983 1.010275 0 0 255
-0.029000 0.000000 1.040000 0 0 255
0.029000 0.000000 1.040000 0 0 255
0.000000 0.000000 1.040000 0 0 255
-0.002000 0.144796 1.021264 0 0 255
0.090250 0.157069 0.948438 0 0 255
-0.090250 0.157069 0.948438 0 0 255
0.115000 0.000000 0.030000 0 0 255
0.115000 0.270000 0.030000 0 0 255
0.115000 0.053460 0.106410 0 0 255
0.155633 0.053460 0.103170 0 0 255
0.074367 0.053460 0.109650 0 0 255
0.074367 0.196560 0.030000 0 0 255
0.175617 0.165240 0.030000 0 0 255
0.124992 0.161730 0.079005 0 0 255
-0.115000 0.000000 0.030000 0 0 255
-0.115000 0.270000 0.030000 0 0 255
-0.115000 0.053460 0.106410 0 0 255
-0.155633 0.053460 0.103170 0 0 255
-0.074367 0.053460 0.109650 0 0 255
-0.074367 0.196560 0.030000 0 0 255
-0.175617 0.165240 0.030000 0 0 255
-0.124992 0.161730 0.079005 0 0 255
0.049875 -0.028327 0.994080 0 0 255
-0.019404 -0.044404 0.968019 0 0 255
-0.000075 -0.004555 1.005475 0 0 255
0.028288 -0.000719 1.040846 255 0 0
-0.029959 0.000248 1.039139 255 0 0
0.120950 0.204951 0.997870 255 0 0
-0.122622 0.199488 1.001640 255 0 0
0.087629 0.141291 0.941822 255 0 0
-0.088230 0.137347 0.944544 255 0 0
0.118814 0.037706 0.093944 255 0 0
-0.118799 0.034478 0.090735 255 0 0
0.123129 0.137881 0.074643 255 0 0
-0.129459 0.136481 0.073089 255 0 0
-0.000075 -0.004555 1.005475 255 0 0
0.118111 -0.028617 0.040160 255 0 0
-0.118538 -0.034428 0.041310 255 0 0
0.159996 0.032016 0.087339 255 0 0
-0.159444 0.022359 0.079417 255 0 0
0.077631 0.043396 0.100549 255 0 0
-0.078153 0.046598 0.102054 255 0 0
0.180086 0.155748 0.028763 255 0 0
-0.190437 0.144907 0.027850 255 0 0
0.069402 0.156927 0.032282 255 0 0
-0.081777 0.167979 0.033048 255 0 0
0.118598 0.228832 0.049582 255 0 0
-0.136637 0.222826 0.048476 255 0 0
0.153897 0.114405 0.098127 255 0 0
-0.101383 0.120603 0.104854 255 0 0
0.096734 0.119415 0.106612 255 0 0
-0.158842 0.112558 0.098278 255 0 0
0.065176 0.140568 0.101104 255 0 0
-0.191817 0.125737 0.083950 255 0 0
0.175771 0.150082 0.074134 255 0 0
-0.082783 0.161345 0.087899 255 0 0
0.050298 -0.029212 0.995203 255 0 0
-0.018818 -0.044068 0.967062 255 0 0
-0.000090 0.100219 1.007893 255 0 0
